-0.1661940813084696 -0.3263515681875352 0.48165090917140596
-0.18297158153287796 -0.30072872807603324 0.5025876593484011
-0.17506738514128758 -0.3036318702052518 0.5038199207977179
-0.20538210862891118 -0.3026499826955301 0.48328338583809816
-0.19398810042521514 -0.31948861503523607 0.4685873813955804
0.2889415619515414 0.03167146669647204 0.4563459117671808
0.2484558268808693 0.05335426857168636 0.47129054550241467
0.2656042963026525 0.07806295376204772 0.45769702653659317
0.29149633625823174 0.04340646072385969 0.45258497071596515
0.2315830147519738 0.06855738780173332 0.4736699471619669
0.2202758497156032 0.08757007850889892 0.47374639914393424
0.26421081555423054 0.06140427543145133 0.46232951759323887
0.2503843721260144 0.13912570371532867 0.44872578747363595
0.2740400238682273 0.12061100978063322 0.4496677860284487
0.24121507015473548 0.09330952561625958 0.4654194965880193
0.2578448969916468 0.09138877249069727 0.459486648893513
0.21768040620011192 0.10550819628634472 0.4734054366743132
0.2224487351233235 0.11164390918566972 0.4699201112688065
0.21348798383686526 0.13000107637252978 0.4639352452912224
0.23097913173619988 0.13666749872385558 0.4555571729511142
0.2798854367735949 0.102926156724516 0.4497272014298759
0.2835286549954251 0.09281431405214897 0.4484990542757624
0.2631092847748021 -0.1494041174284282 0.4843603502118794
0.28512331437654315 -0.12533999408050478 0.4668279382881385
0.2776962644834609 -0.12244730854828573 0.4713985902755085
0.27367730366269094 -0.10738601701433695 0.47461591768935607
0.255239912478009 -0.11513670604096701 0.49044488745409437
0.2613079720419541 -0.11033350810294956 0.48522852799221905
0.2542735211289502 -0.13032663398414768 0.49131903402532917
0.3253412187371277 -0.10293837627466954 0.4306079154416829
0.3094877819565499 -0.10592598751991775 0.44449719982130753
0.30592574572694087 -0.1049976194687696 0.44741572193778656
0.30519478240348075 -0.12994505261854394 0.452176845475782
0.32375969424149875 -0.1355535984836831 0.43697884631905826
0.315960499187405 -0.12156187256999403 0.4413612430283417
0.27579608738503836 -0.08163236136732104 0.47141387882291086
0.2625476083986208 -0.06755529119876923 0.48210998339615385
0.2762348268309466 -0.04225165301578438 0.46646481622949776
0.2782954030911821 -0.0695334514782901 0.46769468246465484
0.2826721011205436 -0.062142569307701824 0.4628515088504569
0.29139430798345733 -0.07748317356794657 0.4568072484037044
0.2844032757537054 -0.054811192322608976 0.46056719837679766
0.28903735690854626 -0.047694386621552134 0.45575997293568593
0.32258808865525895 -0.16994568331778834 0.4551843601028496
0.323591283730702 -0.15425657594659398 0.44607866065551605
0.3297144144388513 -0.15228981503583877 0.44029431531044266
0.3472561763135718 -0.15979609134889533 0.4298659185182331
0.35873081926593453 -0.1873836741113375 0.4328513744934319
0.297485451903968 -0.18842616270373563 0.47535946822690506
0.3071313491730885 -0.18767603382755482 0.4701702312055672
0.2917990101282039 -0.1983946644610411 0.4817248672441956
0.30121952654026757 -0.18128083096347608 0.4709967343375279
0.2687718931959301 -0.16779985459346258 0.48311249346645735
0.2903774413444356 -0.161795878552774 0.47003467096208207
0.347491868302196 -0.19615596343457142 0.444709110273003
0.3358854427878351 -0.18475753871386402 0.4511854116367212
0.33632619835112254 -0.19166610751580787 0.45269347019026396
0.34014016689574655 -0.23314541138287417 0.46015311008417903
0.33505363341449457 -0.2122080058728196 0.45894053882198843
0.3375841301429804 -0.23061840028973474 0.46152557128452626
-0.26319348435063417 -0.19175742893337483 0.50180957527083
-0.2579055282106186 -0.20418291822941564 0.5049732050459463
-0.2691782103945715 -0.1862114991557248 0.49448003278123276
-0.26890310510828663 -0.17476914318024106 0.49453398074534105
-0.27425261687108343 -0.20833195007088784 0.4875968261883383
-0.27799941892656754 -0.18724802211836095 0.4895287370532354
0.3306427449375298 -0.3531410155389202 0.4498417329022081
0.3483289328009596 -0.3090213148737966 0.45436825796242625
0.3422647348657981 -0.3170750972910607 0.46027699243198805
0.3551395156966618 -0.3234141361651237 0.4249300888827833
0.35616590449143815 -0.31043371851484386 0.43515889853219963
0.34903690436789025 -0.3441659079644461 0.41825675421028663
0.30368411939645684 -0.3857405976196638 0.4405527372023668
0.3137445194254964 -0.3773464433649854 0.441956330299417
0.3000417871521939 -0.36891843119414086 0.4669255772750961
0.32143987094949256 -0.35695821193049837 0.46133165056212466
0.3307395814210202 -0.3691972091035274 0.4050016060072924
0.3305787100460958 -0.36158233645456284 0.44046172974894765
0.3057899933604981 -0.39323800230537054 0.410519071164965
0.3001462768868514 -0.3980313499888926 0.4123123705697662
0.05222417487343693 -0.385480625161756 0.43938311479287945
0.055108668758102095 -0.3789035150800607 0.4481596225162232
0.03676584813601378 -0.371653620788733 0.4498229370328368
0.024301189404589536 -0.37145524121287604 0.44672270549347415
0.07247306834559372 -0.3650169389415955 0.4670444462998583
0.0869653076637632 -0.3722263085128757 0.46191600214918804
0.0845272259028654 -0.37923646795877924 0.45381690901863325
0.08773995234618061 -0.37981713893976815 0.45380098957625026
0.018475372593449887 -0.35252454253665894 0.47123609097028557
0.08161521082151658 -0.3603753103319831 0.4741700442651453
0.0786057420052454 -0.35670105521961104 0.4779246624204124
-0.3217561748585055 -0.13110240947770413 0.4601857483720557
-0.3093248781104393 -0.14363505159463694 0.4741846217349153
-0.2921318883994596 -0.18932469930999637 0.47881744265164217
-0.3173128213917442 -0.16395930795600452 0.46354150231052416
-0.3171500168504169 -0.15414685605012907 0.46592185956186016
-0.31144972864113485 -0.10939173715174025 0.4645256125608852
-0.30819770381641354 -0.11965442933834114 0.46941923326631274
-0.2869096973255813 -0.13816821492008313 0.4861031549103096
-0.28902442523024374 -0.14460154290356897 0.48522450923402927
-0.22683929307000888 -0.06667444060398625 0.4894762387640602
-0.2462990700181149 -0.07966541708303077 0.4878595422044128
-0.2541633849545468 -0.06336264058725274 0.4683554682742068
-0.2339688195717541 -0.059213715479404606 0.4741024290998897
-0.21067387132996088 -0.04519196286504654 0.47920012898351105
-0.22223623164353778 -0.051112107549274914 0.4746892260187618
-0.2440247611128428 -0.041609129227497564 0.4555945951308261
-0.23018669720404167 -0.030503222499608146 0.45482969944851526
0.0037572049355282964 -0.3661772036302297 0.4517873647048395
-0.023473815859736194 -0.36573181672390465 0.4509481174783201
-0.03341860646818319 -0.36760885546300887 0.44696495912957174
-0.04289865880089031 -0.37714706404791054 0.43567364217418225
-0.04197615339567043 -0.3800691148841197 0.4314402051439955
-0.04003555079596336 -0.3558048866650005 0.4649852985089778
-0.03810068480930532 -0.3404806748608329 0.4823820315807725
0.006776786368686009 -0.35480879645253605 0.4667720082906101
-0.023839226761668546 -0.3500420297846339 0.4717473676563874
-0.07432381497880522 -0.3721778375951925 0.44763788971022145
-0.10260383069402804 -0.3583430368469014 0.45620340791745884
-0.06852307759730167 -0.3544294626815677 0.46446941230217803
-0.06508691010691757 -0.35042116372696236 0.47000106157472926
0.312655638635048 0.04444158553296624 0.439713177086203
0.32898351898630296 0.04049740474326705 0.4244482226744965
0.32908597478547036 0.014833445251400575 0.4196259164731377
0.3007007556384071 0.025926216787173717 0.4476534745872599
0.3519193504678548 0.027932873203665755 0.3905374615127466
0.3364202335462374 0.009069881028543276 0.4066627847467546
0.20267323875283022 0.14326749845712466 0.45516444629313896
0.22270420651679923 0.1558371186009031 0.4432873555447897
0.23116092707181632 0.14819541796299635 0.44810129374080715
0.1980263785246575 0.16471342036123043 0.4225236072450097
0.21249216483138544 0.18232089242762167 0.4080494682414507
0.1900195769815342 0.14236254176557134 0.4490080749691284
0.19347025811869126 0.15357092430078978 0.43528466206229866
0.2514440829712202 0.18243269818766855 0.4187551432102673
0.25473672964425587 0.1544372563745662 0.4406645939865649
0.20823922339459244 0.19258789033614387 0.38760402456678394
0.2102814226217355 0.19379077813320553 0.38703460692798164
0.23603899984605797 0.206546239198373 0.3826166013338538
0.29629600368501086 0.14296062520845154 0.4281188112019764
0.297293485330578 0.16171879168761666 0.41629315350304025
0.32423529479928376 0.10265571581369642 0.416732780963974
0.3053658198232363 0.09920742101649199 0.4371708493723142
0.304425452865255 0.17031764968959784 0.40516219287740207
0.3165727131625663 0.13476086891601338 0.41668016882675374
-0.21491357421186172 0.028094989529890948 0.4398846063012771
-0.19831612361732548 0.024175984827310527 0.4561339347768427
-0.1878558035922004 0.001572979199938069 0.47276760273731444
-0.20484003552479246 -0.01862584006416923 0.4624227640760298
-0.22180271257145498 0.01949274193292234 0.43518752054181115
-0.1826056612252265 -0.024095432637042672 0.4916137344726217
-0.18933811329731234 -0.024371160919055206 0.48394575632731146
0.14902501689955305 -0.4037626568476404 0.4208094754195852
0.16914238415830174 -0.40817708123116414 0.42104437555893076
0.19222635459083323 -0.39813574792821627 0.46069241127267424
0.17571075681815837 -0.4032726385896841 0.43820212957533256
0.18704745668280998 -0.4137155513250712 0.3925857994521291
0.19955465089413604 -0.41842829740663534 0.3718809044079845
0.2037100924006305 -0.4194365538683308 0.3707740807596056
0.2047278217793017 -0.41754865651841466 0.39260568135202667
0.16766967115306414 -0.41793570272041103 0.35817847246286233
0.1825718630271325 -0.41296840923007383 0.40909027394628306
0.1794773966543099 -0.4162790245576308 0.3646932971057816
0.21621202030017825 -0.39639969655009794 0.46843904900595223
0.21739574313923177 -0.4018019617817554 0.45293746959123465
0.2184530120403532 -0.4042009668264633 0.4461101123489318
0.22895303151027172 -0.40555632205170195 0.44389755575627216
-0.22887981718121542 -0.3185240900351155 0.42801346310055555
-0.22966838795098976 -0.3195920870924306 0.4247693637479049
-0.25482877455426994 -0.2912453399076387 0.43880453116827245
-0.2546012848185585 -0.3003495893720589 0.42158383576496306
-0.22788327246294268 -0.3020302917051817 0.4572262827594247
-0.22849939184643397 -0.3000796293686381 0.4601144093438142
-0.19811867866430027 -0.3317157725148476 0.44345274832040804
-0.18672745949995878 -0.34181979873717616 0.440651192190082
-0.1935487011225498 -0.3317950762301872 0.44788203523926695
-0.25528630098547106 -0.27662015071246493 0.4562588188332499
-0.24362710886401345 -0.28717130035521 0.4576485838786726
-0.2422954345547652 -0.284680754599613 0.4635765333939438
-0.04184419750209097 -0.3830536247167009 0.42740839167459244
-0.07880667122151276 -0.39881242037049763 0.428319004109176
-0.042963406207511566 -0.39696916106138 0.417095800542307
-0.06008330546065947 -0.4037528567820996 0.41736025247314223
-0.10902444676745629 -0.4024181319637331 0.4263864223685255
-0.11277245780978692 -0.3970568540759878 0.4296471929798047
-0.10199532477696731 -0.3712214821122329 0.4462298906365827
-0.11829773990838544 -0.3782109342869866 0.44173282492693583
-0.07721768130749157 -0.4084591131770573 0.41819380210844825
-0.1094581369413372 -0.41099591366124744 0.4183224206923637
-0.29304103591011255 -0.2549995606018964 0.4506760729628291
-0.27518029013736944 -0.27181271028914566 0.4457869911015318
-0.2953679429415797 -0.2844058229074816 0.41010111574322433
-0.29430443602457407 -0.27247192119550934 0.43334970693267855
-0.26714248112061856 -0.2869565052402328 0.4314138907445937
-0.2747932468065126 -0.29386964806891097 0.41299677228038967
0.10011107145663861 0.14960917847629107 0.42992502947622335
0.08999383668196348 0.1579486457970182 0.4159674338114904
0.09429008120010335 0.149321786304313 0.39745481631789625
0.10321318690212936 0.14804902128963715 0.43787969992447767
0.10481625377466508 0.151781829340557 0.45693707526754945
0.042512312291546984 0.18093373520033118 0.37533657385661545
0.041232554244018185 0.1815302992236384 0.3745579482879148
0.058880376693153526 0.1700867713802995 0.3745971710283401
0.05238896470850503 0.1652316468253735 0.34525005159845634
0.0746281527099224 0.1630071047184391 0.37919343440788
0.0512663350396807 0.17026292666778717 0.3609083553778714
0.0895278374246409 0.16405089640075626 0.4454524377566297
0.07478411841703553 0.17346441868704485 0.439632876014731
0.07685029528864715 0.17229553451315696 0.4434985577574947
0.06180533059017065 0.17770887602123966 0.4067948223116853
0.0754357062985676 0.17151831235564086 0.41318807445330613
0.055544504568814504 0.1829953260260856 0.4262421992360157
0.3379233661324027 -0.04257951261127077 0.3716242754673349
0.3437561949514991 -0.03882384637623976 0.352929965474374
0.34016683535582626 -0.04132450969507725 0.3645489705141474
0.36619287870031064 -0.06280122672596487 0.3184322599662629
0.34491826423394883 -0.0665000128032602 0.3754486948629394
0.33746845531867886 -0.06388322086158987 0.3891493514077267
0.3159649676638816 -0.05705450486246248 0.4233171411384792
0.31017383617268207 -0.054222776231254925 0.43203371948771846
0.31232825145182375 -0.03850134753555736 0.41964717598756596
0.31552361209146107 -0.05647094617234509 0.42378099751921483
0.30553717980491907 -0.05693969734001785 0.44172942646904145
0.3048286674051136 -0.021363511079088557 0.4235022874117903
0.3250330372515714 -0.04991067367607635 0.40335402194121445
0.33079086429044535 -0.041552197748003075 0.3881387139511837
0.3278468110765468 -0.03916424478200233 0.3920922277970296
0.35195019926012694 -0.08322873011212197 0.37799454972455765
0.34804662135539177 -0.09491375061474837 0.3952065950814948
0.3267239244176412 -0.08671316192908568 0.42465286008236103
0.3311847146012909 -0.08237704489393731 0.4140550671474285
0.3298617565063869 -0.08542120663151279 0.4185256875061498
0.36365021723790036 0.05970989268727188 0.36747910856686994
0.35174432782729725 0.047921192036729496 0.3953540270539395
0.353037634856778 0.10485286965560944 0.36958827750472084
0.35629408068848134 0.07323765879425873 0.3826284388063365
0.33597367228833075 0.05351297919709848 0.4150999923042969
0.33623001189470325 0.07723184383356588 0.4091785670995939
0.07459467876832371 -0.3952184191115212 0.43585758900621896
0.07969583690919388 -0.41638288828136105 0.4161224319965388
0.12153655652001692 -0.40901867681754744 0.4266959765563806
0.12160111679105168 -0.41015801005851027 0.4252507383823595
0.05532805668492184 -0.4259337527892833 0.3934821218825563
0.04021201823281357 -0.41084940679805926 0.40461307384274975
0.04456180265623042 -0.40421272815338677 0.4147400225156398
0.04426590952435882 -0.396635156950778 0.4231122498976305
0.0809713148455388 -0.42252884914386923 0.4078597781227973
0.07812099211668114 -0.43002650702268186 0.3940042311411476
0.33416716697747906 0.09803263352203592 0.4055493590154604
0.32774236720683136 0.10944873313996228 0.4106584344270343
0.350290998849185 0.1378690228035931 0.358890547423715
0.34630884026601466 0.12249321118905182 0.3803343167284174
0.3363887055251946 0.12802884750802576 0.3931745486546658
0.34168763289050813 0.15527098201474077 0.36405446131804486
0.27082235019680045 0.20500894124116356 0.3843038121872759
0.2666028392023815 0.21429558391623238 0.3590780967091758
0.28687104055094526 0.19192015098023169 0.39536741790292723
0.2770824554881367 0.18774651256679692 0.40514900217624145
0.2918056658105943 0.2038892404505155 0.36313632189118505
0.3120948115776723 0.17710214067771266 0.3870113106884241
0.22127836009995766 -0.42106094104631986 0.3492787146181923
0.22471853086356874 -0.4205443448205905 0.34538153096606794
0.2459890771955176 -0.41920212002637475 0.350448245288184
0.205229980495296 -0.42037771876865093 0.357546422928801
0.22908068789661828 -0.4207391909651229 0.3824407732630797
0.21538694733829322 -0.4210243148019065 0.35339344364601927
0.2150228815629578 -0.4211284691640135 0.34972895049123054
0.28597026752890653 -0.40560869510967734 0.4134011503275597
0.26151379639286215 -0.4183798973902493 0.40146691460802486
0.276072690125066 -0.4116297042191597 0.38192653024358614
0.2745112088294817 -0.4122191969318564 0.37007259202297565
0.2398275465110244 -0.4103152056085921 0.43199186795996225
0.23174682633630134 -0.4152464049577666 0.4189183480151748
0.2637436739685792 -0.41352106327484484 0.4162837543762065
0.2623384667647803 -0.4118062474660066 0.4221494108951318
0.3834740559739913 -0.1992624575311386 0.348392418797799
0.3858522364201001 -0.2070946938066947 0.31711899932715043
0.38506127137255775 -0.21576933559517178 0.3251046056242719
0.38623482783573243 -0.22434258074220229 0.321391133405999
0.38852111389058464 -0.23910751332798985 0.3125469603072828
0.38162053023945164 -0.20602010176986996 0.3745844061514254
0.3884087456562655 -0.2360028844807413 0.3056555494269022
0.3651620674721836 -0.16561999526147067 0.4060528978770925
0.3633613963764141 -0.18008624333613749 0.4223306606741556
0.3646467013797614 -0.1868832387149864 0.4228938574007726
0.38316945006330944 -0.1823789737451691 0.34587237026904694
0.37396730934562317 -0.1708130171141786 0.37586795528901906
0.3799888219473779 -0.1990958877625532 0.38046077038881504
0.3828686168107551 -0.21497838965369406 0.37102182712060167
0.3785930811170882 -0.23522524868314168 0.40103960527446736
0.3793286404746571 -0.2395504976751965 0.39766860809530646
0.3779702891619167 -0.22049471894536654 0.39982604261355476
0.3732439730485757 -0.21006580208018588 0.4090524201429917
0.3769552672006981 -0.22407267222577845 0.4051787653153968
-0.3534450339427229 -0.10619657803703036 0.4204567535195417
-0.3451332675163101 -0.1276303498519614 0.43291153256459164
-0.3541231498819384 -0.13840338044549477 0.3938880679692617
-0.3558966712812329 -0.13271360611666694 0.39936259336824187
-0.37198364676635287 -0.08776494961941203 0.38698847670199615
-0.365816945427289 -0.09359211766741996 0.401984285877353
-0.31781040427889967 -0.18406510507932364 0.4528608779603274
-0.3110279640010826 -0.18687949014274735 0.4631162764008004
-0.3242194719920166 -0.1776903346113619 0.44362442969614313
-0.3265094154717681 -0.1745172188578971 0.4407408902091171
-0.049394175250897523 0.22337854198238205 0.37065999526416143
-0.04119451069898917 0.21962460691505234 0.36418038821760645
-0.04058642431142786 0.22087786518551028 0.3727822171787819
-0.02340561105051261 0.21389769269270661 0.3665010158970889
-0.027491035456022758 0.2165309261134526 0.37309983372694006
-0.03215944587327298 0.222274645510734 0.4322958417053656
-0.03392583134089894 0.22264661049524004 0.42901255504993396
-0.031935792030453505 0.2221967238832221 0.43021809794902766
-0.07092899657466699 0.22961064140961787 0.38430564481578555
-0.05126013092891169 0.22619763211278077 0.4072664114549317
-0.07436103203532912 0.23073920160431477 0.3937917515300675
-0.00042908164974785404 0.21044207724139335 0.41500036603462026
0.0007062219321618442 0.21012996205612247 0.4185855638494017
0.011475306327141024 0.2048224505510184 0.41311888885851683
0.020731215642282176 0.20336512203198764 0.4608684436947867
0.009821017746906949 0.20725598098275838 0.44130563459438993
0.01126510440346378 0.2061327744675294 0.43355399652797
-0.17353421032161953 0.10762729683618469 0.44743206208470526
-0.17888529223767805 0.095795406081577 0.4376606328141619
-0.1741902587957916 0.09850229235934074 0.4603239335037095
-0.18521975559884296 0.09296213658103707 0.4169535022590514
-0.1875166691689406 0.10022317112179785 0.4003655011338942
-0.17813083785471157 0.11119853959793193 0.41495321670756713
-0.16036009144474472 0.14249414544290714 0.4388953521783465
-0.16264356613965808 0.14716906806318628 0.4070907169041866
-0.15718958634928726 0.14937102169791044 0.4366259879378558
-0.17091168117910233 0.11651966450130366 0.44430705159993644
-0.16497985318376732 0.1240264348591496 0.45924616013686603
-0.16456704182095142 0.13284313488804778 0.44247842124758263
-0.18092585712267772 0.12336636674654826 0.3442380596903645
-0.18381929376742062 0.11487523044070491 0.3856239696457079
-0.17764036607184852 0.12636287299637158 0.34834710264293833
-0.16778163068402252 0.14163325728069776 0.34871257646870113
-0.1697194303057586 0.13690701384461487 0.35691585152226923
-0.17204910254580608 0.12923893305991685 0.40443224187845134
-0.3342201895199678 -0.0801101397947781 0.43441243626988074
-0.3398061190475579 -0.03162283804611618 0.4017903270680757
-0.30993865763955963 -0.037233509876326024 0.4231704023337182
-0.30589435022233424 -0.06628486799899905 0.4478308676085141
-0.2980185318686012 -0.05429449345495159 0.4421280768036214
-0.3155433735035442 -0.07862860969512622 0.44810342567494243
-0.31386587440535585 -0.06183639695647817 0.43973558938446733
-0.30226399483119915 -0.08482440391443852 0.4610817086068137
-0.33611903650566366 -0.00027717809655956535 0.37169784078598694
-0.3345590005051058 -0.027488630030323386 0.40049998664045783
-0.33239864414312764 -0.014734743415975419 0.3886159531873136
-0.3238052193569993 -0.02782811020006873 0.40819761296628554
-0.3193915240046753 -0.016028883627606533 0.399599555037221
0.36983889149239674 -0.026159159137471553 0.3053496145004174
0.34698317549917534 -0.024398501424674503 0.3545932273580838
0.3494941717268226 -0.026505571370043488 0.346876600162439
0.34036510521234276 0.005339846863515261 0.39581301128622554
0.3685803028284362 0.00580749879471261 0.34103647644153573
0.30388312786403865 0.0078059046434490785 0.42745491379309897
0.31707228984329094 -0.012684378444369336 0.4030697541952186
0.31178163684338583 -0.009199361796245628 0.40923599516640213
0.3410142492420767 -0.005002496004900679 0.38541696679023235
-0.13172711496649853 0.18998834142621282 0.4012151099095375
-0.11934016306680778 0.19939583060012062 0.396031788182953
-0.10998253197673119 0.206778991508628 0.39962351012856034
-0.1246307480423452 0.19510561677371593 0.43105680267161783
-0.11004030007582502 0.20654557392958084 0.44402733942747685
-0.11862014722046527 0.199958529314816 0.43018888175982106
-0.1612427636374984 0.1536245235283893 0.3749711219159202
-0.1632364009029089 0.1510928887166745 0.3541623804385423
-0.15538486986480166 0.16227199685565427 0.35854215172914017
-0.15255010952199144 0.1663124160198654 0.35985059086788607
-0.13371183933089387 0.18626826235845595 0.36667611935698996
-0.12797367905070073 0.1902336496153806 0.352680503266728
-0.1398294155082235 0.17887729752722 0.3492491060498184
-0.13211893629578084 0.1882642007604085 0.4301526778741621
-0.1400089245564614 0.178997710404592 0.4202558536354001
-0.13477564167926087 0.18485667350006602 0.4281615234678958
-0.15263165934685893 0.15896772844873797 0.42750449030983456
-0.14661341620320234 0.1719918463379082 0.4077878780858633
-0.15371602092453937 0.15931776474360262 0.4183353344471633
0.33248606826538374 -0.3689908325079341 0.36540425939870846
0.33641243098781215 -0.3640632943807498 0.3600989219718735
0.3510976990867871 -0.3465401102387238 0.3826826420053162
0.3505889775597667 -0.3461546148194957 0.404500829559462
0.35022902057860494 -0.33572096608412416 0.3327713870912469
0.3453152315523257 -0.34268210341197314 0.32560854331870803
0.339331080103615 -0.35150357183740194 0.31767364843367984
0.3566841804133907 -0.3310862474409127 0.35251508077347943
0.3405987271994506 -0.3541961435566108 0.3327030684396496
0.32710709076411215 -0.36812993343788614 0.3126575010812007
0.32599918130681865 -0.36803963011357277 0.3052351559479623
0.32178760054163147 -0.37694906683998003 0.32031281370605863
0.356189101862834 -0.3310636304765331 0.3904690919468979
0.3583432685610811 -0.3235727309484866 0.3915357193968191
0.35398869400521715 -0.3392429800957076 0.3865827010782329
0.3684098828687432 -0.29399300229303393 0.3885491017862863
0.3638229269208555 -0.30385363168971063 0.40138793960286323
0.3625947178727763 -0.30835654817092106 0.3984946892034219
-0.3249920466811421 -0.26010723341826014 0.4226379773695519
-0.35323489772166483 -0.25241269125615085 0.40043076383571874
-0.3371524201176792 -0.2371012034563066 0.4214469622749539
-0.31515089400432017 -0.24139546930690006 0.4452605429797224
-0.3755722775930006 -0.2488306230892856 0.3709257246965554
-0.35672968693372015 -0.23491953645211977 0.3975668206763405
-0.27764725919482625 0.017083336726803896 0.39748288404210197
-0.28174173709274253 0.018358435725879894 0.3944871062563803
-0.2732012134480817 -0.00795448417213253 0.41749921686142755
-0.2803025284374819 -0.01158639082519666 0.41641823573868175
-0.30821421380796254 0.01147829855942421 0.3782819430185078
-0.30565395715346433 -0.0014122959627356564 0.3935938107821755
-0.30629962076068973 0.03384194355969649 0.3596382965775596
-0.3006049473182461 0.012603195433248797 0.38206446085112167
-0.2765734619280825 -0.035083463765176875 0.43628749546967577
-0.265042330131296 -0.0387742888776529 0.443822568179933
-0.2815481649188095 -0.04805630100737481 0.44467089431629825
-0.2920582770053141 -0.00635225256737201 0.4070364478156226
-0.3001794408648515 -0.022532037954022074 0.4161062735619846
0.12490659158341376 -0.42136500292116774 0.40551059737748824
0.12074693134597635 -0.418118350689286 0.4132264557401555
0.15204136229280557 -0.415646033307956 0.3993125227027565
0.11859906393795913 -0.44257126596572194 0.3636662111875134
0.11184879079123235 -0.4341956936605901 0.38880922519995387
0.160509999327904 -0.4209807535969778 0.36595991483995705
0.15109630803765728 -0.42690921499575085 0.3672402110827668
0.14602254709194823 -0.4372733067462993 0.32856039379481816
0.14544521188437443 -0.43641052795631574 0.33543228140809744
-0.1292687201473456 -0.44560997185651763 0.3529104011866888
-0.1336951216173081 -0.44868416215896273 0.34054451097044824
-0.14562566370496843 -0.42525037389936415 0.3790086783861628
-0.15049125086747417 -0.41920097261846145 0.3844633058739979
-0.11467171959426622 -0.4152708261890961 0.41233046847618454
-0.11699048915004974 -0.4405440919356095 0.37409170817241266
-0.14990143971336384 -0.39830865545195493 0.4101966544597758
-0.14689993250289282 -0.39608536462803556 0.4153589054753076
-0.12995276925905344 -0.4151881404380583 0.4068981123283588
-0.14080339039304224 -0.3948667619859536 0.4213607868872602
-0.2501259693177073 0.03240806967620461 0.4078836040349837
-0.26358671761020813 0.029336881505909726 0.3994764556872549
-0.25252755936034815 0.05671265602556402 0.39225729390345765
-0.25020351506291894 0.06121182274818274 0.39038265215197754
-0.2327165575417386 0.04117434918473765 0.4207840684451901
-0.21571133785477392 0.03754413747652968 0.43755422145687783
-0.2957552978363608 0.04486782904452612 0.3611744042144922
-0.2818916836992872 0.035646789577809354 0.3830010237918328
-0.2790467042081576 0.053559931690506754 0.369401876901973
-0.26319663243410074 0.047366192477770484 0.39044277340456757
0.3578099005659166 0.06497983786240406 0.3435652758170419
0.36310086566215194 0.06459074484512783 0.355233379888619
0.3461842432496746 0.10058640166783958 0.3329311230511208
0.35514274849316024 0.07429722255885768 0.34127285125086376
0.3614926853274057 0.08322114966581509 0.35840098987268115
0.35422042338903825 0.08989140920115324 0.3435592792417978
0.19248294041104796 0.20027365244598389 0.3444652623742007
0.19405494965718095 0.20618930815955339 0.3332898399596743
0.2029334751785994 0.19652683387051229 0.37023049946674885
0.19945905635572203 0.19967419860220856 0.35731088118080073
0.16260245720667438 0.17999054185830327 0.3341315227167784
0.15720323226948194 0.17964400475096448 0.3175174824041314
0.15205784071942138 0.17968396216959642 0.2999267120956284
0.17720857363798323 0.2057711570465955 0.29572080970603276
0.1711229131163854 0.1968765624691018 0.2973701234870171
0.18696581594389539 0.14930206604568141 0.4359085160212261
0.19514699979877342 0.17620234759317788 0.399579169974173
0.18717824172335645 0.17933301916164068 0.38013608376315977
0.19357007973604043 0.17457239980576145 0.39993639448581964
0.1992952192804569 0.18124518876931678 0.3972279541004419
0.1685225196439866 0.1755708280177629 0.35751423872285
0.17588919438247663 0.16371517610075642 0.39016748053001693
0.16835124720693828 0.16233713076939638 0.3815173416963275
0.15489635617106828 0.16518625754873426 0.3563462039803832
0.17404179316798374 0.17369880345146488 0.36912870872645076
-0.20139161698582653 -0.37785746655346003 0.3768099528777954
-0.22056509586757994 -0.36177110098280096 0.37120652756577727
-0.21323971016867388 -0.3799400789061539 0.3541221660262318
-0.209608351117964 -0.3481027795046163 0.40921433050016154
-0.22674007486004744 -0.3402861429019533 0.3947042222598971
-0.20302852199362237 -0.36063541084855627 0.4005721448983337
-0.1649630101390467 -0.410047992597284 0.37976479504850297
-0.16623818944109467 -0.4164333999214961 0.36228597728770773
-0.1628496001219794 -0.4251161959885159 0.3496945058694289
-0.20538184077632052 -0.3907476477322662 0.34933948614636673
-0.17925533958915335 -0.4201796101134657 0.33209698378375074
-0.17714637118467325 -0.41942571403329326 0.3365908902834708
-0.1929149965483184 -0.36369841075021847 0.40728213020679493
-0.1795963083755697 -0.36019719952323115 0.4242399621651949
-0.20616611888117595 -0.3446969961556264 0.418254508759722
-0.1855497136553784 -0.38517720461815186 0.3888837437954666
-0.18867915568365606 -0.38232825207534565 0.38873227459921245
-0.17666685220372844 -0.3703315591348831 0.41460696729124746
-0.03597389491224497 -0.4218615108168214 0.3708796672410482
-0.026804584511128843 -0.4066286792290481 0.3955919314054678
-0.013243411504499921 -0.40751588772981495 0.3681914338529792
-0.007929411864771014 -0.4036247756140061 0.3692967620724908
-0.05770657748431085 -0.43590794188219734 0.35569597323693164
-0.060376061149289825 -0.4281759552913158 0.3796857551899209
-0.014189122957516547 -0.4132000593391413 0.34909143364897266
-0.02561698438399215 -0.4182988916716401 0.35908183364724827
-0.025835725728144555 -0.4234238919983831 0.33975940026899865
-0.02955922156044446 -0.431597799763043 0.31293120563629206
0.36758814507783477 0.055063764176501606 0.34009070504827377
0.3591090839777097 0.06466972983661072 0.3408230333774239
0.361376711274244 0.07268467965493444 0.3265224700757132
0.36586412869798485 0.07173767268800407 0.32116841798106227
0.35928768717341836 0.07156418562031827 0.3318258582341355
0.35692375406355337 0.07504944319635423 0.3292439997498304
0.3833335801159534 -0.11044036501745122 0.3630470697617687
0.39088687841910114 -0.11256710244119776 0.3586652632896848
0.37599405366629873 -0.1062263646589496 0.3652055625648469
0.37181046405670715 -0.09306501398384986 0.35825008034150707
0.4180626462667718 -0.08723120386425064 0.2872803054678843
0.41174006930782214 -0.10742815738870783 0.3320307893131367
0.3831330376934016 -0.07295272219035559 0.3139884734157529
0.3805411472747805 -0.08104294599005565 0.33366002651180027
0.3928172444112904 -0.0676060295332382 0.2878670343913264
0.39373397212188793 -0.08013508960960944 0.3121015177115712
-0.3310870563343466 -0.18168517180040955 0.38015505015834894
-0.3513974481861113 -0.1516962833583387 0.350943285989913
-0.329161033269953 -0.17523980280228713 0.41596849457177776
-0.3340178054577579 -0.16794408555732263 0.3960693504863966
-0.3232025337963773 -0.18385511128734253 0.42705878865029784
-0.3303773026207998 -0.18073281350198073 0.38342225565445537
-0.32438541653092423 -0.18586759211225762 0.39903351006085175
-0.34672354199172006 -0.14915951063806535 0.37021170379288865
-0.3703820964829243 -0.11719206861577768 0.34430553301105266
-0.3587992111645561 -0.13089224330191115 0.36752735760249267
-0.34357573460017005 -0.15443172866794266 0.39821093004880825
-0.3575346809185683 -0.1327510006696871 0.3676141296944395
0.40041120617503917 -0.14011683371035738 0.35108816696801565
0.42368738138058776 -0.13120902106548754 0.3284661076034486
0.3973906620134987 -0.1195237095625217 0.3564273784857578
0.41985372733568255 -0.12408928566001819 0.33168671377464237
0.4531934296468434 -0.13891175390145932 0.2820541047937986
0.4406524020368656 -0.15175525985663196 0.2893806912348121
0.4160223391498396 -0.10971304016388239 0.3290340011366691
0.43873213058965993 -0.1267023216210882 0.30636972524771816
-0.005191024097682385 0.1958647520859207 0.33113839817340684
-0.02012597465916913 0.1946411767687799 0.30528217699288973
0.00994262604602259 0.18909408722376483 0.33964587061452456
-0.025274928453227038 0.2097380796989801 0.34274271759219976
-0.0238922683202761 0.20747561769707032 0.3362916061685356
-0.031271314701097015 0.2077511001540729 0.32488042932520217
-0.04332979321394503 0.20768744374531867 0.30607036102420926
0.018844734846580415 0.19559073072671715 0.3872141771615345
0.004224449007828901 0.19891821074386848 0.3569965833073512
0.014218643714798458 0.20242565097878357 0.40264094755520596
0.020299225457237752 0.1963904859294663 0.3974793778968039
0.37854260788727634 0.05620693522914895 0.3277255549620954
0.3890291546205595 0.045779790193296886 0.31451973359594343
0.3813191924270828 0.03654802519230936 0.3380079602194047
0.3793624096179059 0.039477742605282265 0.3392995394162861
0.39261871504346535 0.03770668554876277 0.29058310567855133
0.3931452531138886 0.02283981102997869 0.30437526765221556
0.3349498995094382 0.175385534566675 0.34548033539820144
0.33246813189622537 0.17860104031100993 0.3418884328839711
0.34787837150224576 0.151857786467551 0.32707402279114517
0.34583379363267375 0.16413976525175916 0.33911236708386966
0.3283385678197449 0.18234416019557134 0.3082811141103228
0.33500402860359013 0.16809183461174268 0.3012948412095632
0.02619548818120313 -0.4316176946972451 0.3194109864171677
0.033700920229302135 -0.4340844605901082 0.3287660679894763
0.02463821106111572 -0.4306224771795794 0.3280590678621257
0.018473956127093103 -0.4272671879965278 0.32603367299835795
0.004524801407411974 -0.4206973628001567 0.31262701257089864
0.013157265464153496 -0.4244835696463457 0.32325446561983623
0.06025350293576553 -0.43726374485798847 0.3685696564411906
0.05869763446167067 -0.4422122534445087 0.3417874797982069
0.004955396346272034 -0.4084151160137788 0.37103378068056087
0.010147980382036643 -0.41786041120854023 0.3541061112675686
0.0245800993875867 -0.42201033677913524 0.3682118749466372
0.017650355171789166 -0.41347202711108416 0.37950743926638303
0.0318929818056485 -0.4290739672789146 0.3612277585104709
0.307816480857828 0.20075006443624668 0.32851761705845367
0.3050062534469804 0.1962818495102125 0.35581247277355665
0.2789191886891064 0.2127932144525226 0.2999209588988057
0.3122746215394997 0.19704591466854127 0.312169405231954
0.2611970162870413 0.21747982760343873 0.35017655132348985
0.27522946511269997 0.21674431110888753 0.315414073558658
0.3887390805770901 -0.24060757036749908 0.3037249639293282
0.3857762275626546 -0.2529542479259833 0.28983495191550884
0.3876077606500995 -0.24209856523284962 0.3257742519441465
0.38672478988246434 -0.24632924394358796 0.3169574852287836
0.3771090275944596 -0.27573816518995514 0.2855011662006739
0.37573662041529243 -0.2788645972704872 0.28584903718674937
0.38201641776091066 -0.26319766120229365 0.27281384687729854
0.3790752892879259 -0.2714837074022233 0.286892806703
0.3738868986510118 -0.2816756734789985 0.3625439928347753
0.3722536970326442 -0.28972443749756505 0.35382338799171265
0.3750861095696598 -0.2807954783929978 0.3493386251648607
0.37662559384739 -0.2662916810235717 0.3867178544331629
0.38275204446940736 -0.2505648014574622 0.3698302480149248
0.38175545208164724 -0.25115222415131594 0.3806363353731554
0.3776657355936202 -0.26992104148714446 0.3580920368310057
0.3660056333447442 -0.2968464234122827 0.2867960797118686
0.3413818155000775 -0.33289171398797857 0.2555484538560626
0.36257677098398455 -0.3022080401887475 0.2681242483239379
0.3638172320691791 -0.3000514929594128 0.28395190919314317
0.3471515191761694 -0.32480707395472813 0.28917375011371665
0.36607700998554726 -0.30257302814849196 0.32727625986839626
0.3559291723233651 -0.3200797107241726 0.3225125117472708
0.34477742931190597 -0.33309394330997244 0.29981659255692317
0.36300027004894253 -0.3094469355380601 0.3302250385770705
0.33702125914138525 0.11221011720475473 0.3068538786488384
0.33753032565525726 0.10953520819007405 0.3111874054318972
0.3498705747847159 0.11349999017042497 0.33730215648108447
0.34465579121582096 0.12012091950433032 0.3209182877872496
0.3395862482144388 0.10342347640035886 0.3191539573966607
0.34385218689483715 0.10540562041185128 0.3279544486699509
-0.35835377737682045 -0.051157699979282586 0.39317624629508197
-0.3581615311776455 -0.03617510476864731 0.38508332023818814
-0.3576224313468938 -0.07914529847989865 0.40891199414957846
-0.357890608551675 0.0013264483503427557 0.3413316809804449
-0.3530612980858444 0.019788552537372925 0.32133214486781925
-0.3577006770094317 0.007502300553824684 0.33013236331971263
-0.3500015264042091 0.00594536866905876 0.3518171054509983
-0.34227299751691137 0.017897792097997578 0.34943782838491655
-0.3686570073952086 -0.08255165530542653 0.3953611348190502
-0.37559047554462704 -0.061577512801319775 0.36563637375676306
-0.36847975866073807 -0.08077333211415637 0.3950599089313822
-0.3746727498601728 -0.03426428528403368 0.3425753899984202
-0.3784983947000535 -0.03998531826600963 0.32832404672532983
-0.3773270326259345 -0.04415790212547963 0.34201574297075
-0.2749856363158592 -0.3123367552667259 0.37228966980837314
-0.2665828508039501 -0.3245655681853872 0.3521025496514427
-0.3038053915681907 -0.2988049638830054 0.36584471271118146
-0.2894168166367497 -0.2957697674888322 0.39068936874485155
-0.2852188558436938 -0.3229493235046189 0.32254320243230283
-0.29212650657494643 -0.31463242671780756 0.33415171249416753
0.3955365676283619 -0.17038026343603213 0.3310531239213015
0.39361848881792816 -0.1717342763425882 0.3334792225244665
0.3915869161699576 -0.1555730781213494 0.34621502635979673
0.39269680164957044 -0.14906192199177037 0.3517584134502345
0.40696489416181364 -0.17897701582669745 0.3055563560546144
0.4244750043207291 -0.19129859346717187 0.25898194328514734
0.4211296961725977 -0.19883342022212983 0.2529917975918144
0.3889346876105025 -0.19311978668054042 0.31894553149048066
0.40380523430398135 -0.18413645402620885 0.30335538040103294
0.40565094191666484 -0.17948804754835546 0.30711386137561203
0.42836217932291953 -0.1568743676429709 0.303029369389359
0.4351761135038451 -0.16377642146786128 0.2856527871871517
0.4176889823714588 -0.1822388348135887 0.2836682183803694
0.42109976573134855 -0.18313597098836173 0.27714660712991623
-0.3700073631314544 -0.19936497506940637 0.3390339719711258
-0.33641753884370595 -0.1863510434835285 0.36496257282515987
-0.3646954293189981 -0.2262906021813918 0.37816250012343877
-0.3706020700908086 -0.21888071467061934 0.3588657488593683
-0.38204520664356945 -0.2014145347203175 0.3298021882909227
-0.37824793185206634 -0.21362413033659367 0.3441217370770343
-0.3347772977953548 -0.20558520841997774 0.38342559304232604
-0.32441366172414 -0.2166601351835325 0.40947864372114867
-0.3288457921582356 -0.23039820368376884 0.4262543280526579
-0.3239055234568775 -0.2222380075781756 0.41786465112350435
0.3809325586111876 -0.018172897828895744 0.29472549091484757
0.3739261205267952 -0.025278289458772002 0.29944287811823816
0.3890168430637117 0.008457441387872452 0.30849257028021193
0.3883680661557455 -0.004948799708526166 0.28374899082786936
0.37372251802938633 0.011642461035470095 0.3376678771828096
0.3826243293575339 0.016057200493124143 0.3286673174623861
0.33709775424149785 0.10296432246855568 0.29464539307304244
0.34582350233301573 0.09902394760039629 0.2836007494833533
0.3430922832150456 0.09369507309558284 0.3108861761408475
0.3403109302732149 0.09502778094366532 0.31409715711267217
0.354210934981851 0.0901071724700518 0.29648250534460346
0.3593463463801667 0.08285398688601797 0.31116149087487255
0.07153123353983884 0.16226398016334387 0.33181358693499297
0.07756718726848247 0.1588666796845421 0.34723867428965804
0.08356637561462157 0.15878004562796438 0.34983616400386197
0.07632480087480781 0.17255450139947162 0.2902437820573058
0.09328363738552006 0.17105042166624107 0.3021209307772499
0.07494885466934055 0.17706132077742204 0.2650987064130852
0.14885521935474477 0.16516120391467057 0.3496098906967605
0.14768913184122723 0.15097693065322357 0.37831438106506127
0.12959595217093522 0.1598978091998567 0.35129514017791574
0.13330863209214758 0.1372744044305342 0.39973170809664316
0.12850621699167614 0.14216683255780135 0.38735226421274616
0.1224689929136644 0.16558141579925917 0.33617655400906454
0.1283466255079142 0.1628751128906848 0.344558453176545
0.11496254091423748 0.1529893216804592 0.3593272307885977
0.10165785016336824 0.1511803145112623 0.36940409764167437
0.10648578605408432 0.1422023418283085 0.3932979045381081
0.09413504828913494 0.15389037010355702 0.364427219202645
0.11923816047576767 0.14599956062312258 0.3777391473220094
0.10445624227465013 0.17121141001089638 0.3072154702779127
0.09050973979285783 0.17695779372724824 0.26986498248729446
0.10205433759546446 0.1720558472838385 0.3014822001120387
0.0982425557394938 0.17970586169666847 0.2619972472326004
0.11923663078713985 0.17447389737978047 0.30132841856981274
0.14612481231081412 0.17106723179473712 0.3320281280269821
0.12866836148747723 0.1762153390807855 0.2987480841960475
0.11648758590290813 0.17383141466795282 0.30269380221975345
0.2631141816651663 -0.41696753295949934 0.3506082816573857
0.27632979632968346 -0.4075572635523283 0.33407172271180574
0.2951157899760044 -0.39575923385320094 0.32850112570455803
0.29817766026478754 -0.3945484435124903 0.33264941617897964
0.24304773408298627 -0.4070184845443612 0.303807287567207
0.23753177480792775 -0.40619510052541885 0.2975027285791054
0.24222518431442583 -0.4026056833023154 0.2908456032850041
0.24991702022288623 -0.41447329268628097 0.33193104595038114
0.22159631483895248 -0.41831185571453955 0.32174399908031015
0.25561375250268403 -0.4077383279825214 0.3150319049482924
0.30301611035662257 -0.3873186733786396 0.30725097839419646
0.2971937880510541 -0.39369225279533515 0.3239695189328402
0.29776941909732446 -0.391010858101667 0.30977901480082215
0.28438919043916666 -0.38680157303292456 0.27575785087148424
0.2753465943474762 -0.38970121284258596 0.2777665926237147
0.2626031210640731 -0.3941375723761573 0.28160607627357165
-0.23072169479803517 0.11618849109954282 0.2875642145111089
-0.2302634313296561 0.10341050423305623 0.3301998228890357
-0.22844581369025854 0.10580981568131945 0.32493356703784854
-0.22898105410458253 0.11714698536179537 0.2869203260612427
-0.2212340547317732 0.11492686397170572 0.3053615236666391
-0.1951793914144192 0.11055706906223928 0.3532259890103389
-0.19010933459459017 0.11826360353204336 0.3362201321616669
-0.2019911861229474 0.11838229158993323 0.32086630304212305
-0.21041071841913536 0.10788436715603228 0.34212259228350084
-0.28056648994425926 0.0776545861987589 0.3328247195777309
-0.2524751250408716 0.09009525495156562 0.33880767254513655
-0.28476214403987476 0.07640163951036413 0.33061673125506186
-0.2626823116482659 0.07670184243970354 0.3559056601110995
-0.265503135242801 0.09448580878088067 0.3057008964094034
-0.28344565699011626 0.0881902141115925 0.29752227130389475
-0.26404256959179073 0.1001014566279289 0.2906917542350494
-0.2563109947030782 0.10389568858712837 0.2908943281677094
-0.2793929607803362 0.09107075389226865 0.29488951151760645
-0.2134431997919019 0.09017573292614481 0.3756413560950421
-0.2055438025587961 0.09580786749191811 0.3746799259342693
-0.19681237309313115 0.09910337606074059 0.37811837707352536
-0.21548656039414701 0.07961897741121282 0.38987024442273355
-0.24820199703936954 0.07301685489521655 0.37702515839491235
-0.2348437846608553 0.07339190969856088 0.38600774485132855
-0.22487623198063394 0.06638458492452687 0.4058046871945665
-0.22453220663659385 0.06523114517422425 0.40812600095651747
0.3301549652884177 0.14136171617827734 0.27994223785860267
0.3378099635162254 0.12313902336687246 0.2961852917121972
0.3361980092553364 0.1563239374007502 0.2974642913465174
0.32971166916050626 0.15048927470273016 0.28218628792989164
0.3459553443958788 0.13241681187590473 0.31725487246353035
0.3412630780090163 0.14885341736605032 0.3035070399135518
-0.0838390052070203 0.22119373785638155 0.3659327645556226
-0.07739247457986873 0.22567993309824674 0.36378483447416493
-0.10215408753444938 0.21030057320803805 0.3756580244588493
-0.11052272700320981 0.205129058560338 0.37488347103350317
-0.0985020211291943 0.21162210322697272 0.3695687520256048
-0.09396811175376983 0.20590275394494956 0.32599806125097036
-0.07605349445532453 0.21765747203894598 0.33432599717291933
-0.07756207731789032 0.21437271538698355 0.3275193444589405
-0.1224230911566996 0.19376043846868946 0.3493239213274604
-0.13543544435784194 0.17776797607019296 0.3188241385568715
-0.12244574115544525 0.19406784977303546 0.3507564789734155
-0.13062289318273854 0.17653506293478985 0.3026506060962318
-0.12431908773598954 0.17990042308617918 0.302182175128679
-0.08949705899094816 -0.4516707921816818 0.3394461616113299
-0.0788266441421303 -0.4422044939951912 0.35898915883987187
-0.08294115318777867 -0.45310953412050237 0.3251419004755604
-0.10784069840280666 -0.45441045058799984 0.30184899991553593
-0.09726534268472466 -0.452361748793983 0.3310129582647575
-0.12384410529135256 -0.45182145076484603 0.33199784108558816
-0.04410628610275868 -0.4369166781770011 0.32265243300153995
-0.03746558653498129 -0.4364148175245283 0.3048513454235477
-0.06989867790556419 -0.4486221054679532 0.3220053361624924
-0.05151355309660956 -0.44279507545137176 0.3033580434851714
-0.06797186569148836 -0.4485388726576656 0.314822068498557
-0.0644909825382912 -0.44708695064643017 0.31479073843603583
0.08498904644228404 -0.43378435760851064 0.2998015698235025
0.06472106196680244 -0.4341584009692797 0.2949718335216329
0.04377976354845384 -0.4367987423526749 0.3027492818043603
0.06433853641503444 -0.44318836173043374 0.3229728510220681
0.11283392221649091 -0.4430644762614418 0.321617109477407
0.12908803359770202 -0.43597846746305224 0.31006840575663797
0.13203767071953787 -0.4315285923125667 0.3041806312385522
0.09701331443824904 -0.43399979580827147 0.3027853393434381
0.09258329745314754 -0.4461759312210082 0.33034963125076083
0.10067929208336565 -0.4469610061430933 0.344920464402269
-0.35787634166314386 -0.2634251016398084 0.37483277399688353
-0.3623245934669376 -0.26573180464387336 0.3607637519575262
-0.34931798549152515 -0.2739743579038079 0.36083065351385174
-0.33616696779541505 -0.2820177552050659 0.35967528790018133
-0.3909437451281494 -0.26511347542796765 0.29727096749556997
-0.39881984486486743 -0.24944664121950844 0.3127392285823595
-0.38507089540817474 -0.24782914190002792 0.3536785096561863
-0.37322956616609365 -0.26554430974265136 0.33675045516571306
-0.3433390953735929 -0.2901822597745316 0.3130899602102519
-0.34629774163444205 -0.2847457888899477 0.3321235576457114
-0.38290136407102116 -0.2713483143287992 0.29331936468354236
-0.3844081654397746 -0.26918009385769254 0.29985012093504726
-0.3747917634566339 -0.27355114523912016 0.3050595809288493
0.22676275848064464 0.22484524269979733 0.2662171588886359
0.253118810651749 0.22014103330025808 0.2693057418522866
0.24593954282114794 0.22380639714992528 0.3086094830472368
0.2334882426701812 0.22588598758218084 0.31449813862286297
0.2671007625901882 0.21427147337818803 0.28089211810641646
0.27306722281503165 0.21125231508586076 0.28160596586454856
-0.31835691034595026 -0.309556308365611 0.2996703689562381
-0.32475597809699597 -0.3101084813213978 0.2739976171709568
-0.3225096176541505 -0.3025168255387989 0.32100125973863314
-0.3317631565222117 -0.30250757536202477 0.2891699333333254
-0.3073738326355815 -0.3143943396840019 0.3110458954155892
-0.31217170503635167 -0.3134503259981397 0.3028929696831645
-0.32045022805396617 -0.2966211237118078 0.34302754604038865
-0.3089239951462145 -0.3024058367838369 0.3488266828241372
0.1862304959041127 0.2156726442600319 0.28927152344448354
0.17968174052343677 0.20980821321064214 0.24689009181892
0.20995414727604658 0.22417819401866915 0.30829738084100367
0.19571992106304495 0.22250995857316283 0.28480437914226386
